ply
format ascii 1.0
element vertex 1556
property float x
property float y
property float z
property uchar red
property uchar green
property uchar blue
property uchar alpha
end_header
568 212 93.8711 195 157 120 255
568 216 89.1384 184 146 110 255
568 220 88.1443 179 142 108 255
568 224 86.5082 177 139 104 255
568 228 85.1372 171 135 99 255
568 232 85.1299 181 140 100 255
568 236 94.4908 202 162 119 255
568 240 82.2589 168 130 91 255
568 244 80.6802 175 129 92 255
568 248 79.057 171 125 87 255
568 252 77.8083 165 121 81 255
568 256 77.0331 166 120 80 255
568 260 76.5622 146 107 71 255
568 264 73.9639 156 111 66 255
568 268 72.8536 152 106 62 255
568 272 75.4819 131 94 58 255
568 276 80.4558 110 84 57 255
568 280 84.0282 96 78 53 255
568 284 83.1669 95 74 49 255
568 288 81.7639 97 72 47 255
568 292 85.5947 85 68 44 255
568 296 87.6802 77 62 41 255
568 300 88.7098 73 58 40 255
568 304 88.2205 73 57 36 255
568 308 88.4322 72 56 35 255
568 312 87.7649 74 58 34 255
568 316 87.3981 75 59 33 255
568 320 85.8417 79 60 33 255
568 324 82.2325 93 71 38 255
568 328 81.7588 142 120 72 255
568 332 98.672 192 173 115 255
568 336 100.952 196 178 119 255
568 340 94.4208 185 165 105 255
568 344 87.6766 173 149 91 255
568 348 84.2308 168 141 83 255
568 352 81.6501 162 133 77 255
568 356 75.6282 146 111 59 255
568 360 72.9004 128 88 43 255
568 364 74.0407 121 84 39 255
568 368 74.2594 127 91 45 255
568 372 76.0736 151 115 63 255
568 376 76.884 167 129 65 255
568 380 74.3762 164 123 58 255
568 384 79.7024 176 139 72 255
568 388 84.2333 190 154 80 255
568 392 90.7419 207 170 93 255
568 396 89.1755 205 167 90 255
568 400 74.5593 171 127 61 255
568 404 70.1975 155 107 49 255
568 408 74.4276 178 131 61 255
568 412 77.5263 192 145 64 255
568 416 78.2584 198 148 67 255
568 420 76.8625 195 145 63 255
568 424 73.4973 187 136 55 255
568 428 72.8096 187 135 53 255
568 432 73.4031 190 138 53 255
568 436 72.1311 189 135 51 255
568 440 72.8649 193 138 53 255
568 444 73.5536 195 141 52 255
568 448 73.4327 192 139 53 255
568 452 74.1244 189 139 54 255
568 456 76.5272 195 147 56 255
568 460 77.9065 199 152 56 255
568 464 81.3662 206 161 61 255
568 468 83.2153 209 166 62 255
568 472 87.095 215 175 67 255
568 476 89.2994 219 180 70 255
568 480 91.3998 223 185 72 255
568 484 95.7744 229 194 78 255
568 488 98.0491 232 199 80 255
568 492 99.8149 236 202 84 255
568 496 101.206 237 205 85 255
568 500 102.427 238 208 85 255
568 504 103.794 240 211 86 255
568 508 103.203 240 210 85 255
568 512 103.345 241 210 86 255
568 516 102.394 239 208 85 255
568 520 103.162 237 208 89 255
568 524 102.99 228 200 103 255
568 528 94.2489 223 185 88 255
568 532 88.1654 216 175 74 255
568 536 91.5624 218 182 78 255
568 540 93.2483 222 186 80 255
568 544 88.0927 205 172 74 255
568 548 81.262 186 152 64 255
568 552 77.1791 185 143 59 255
568 556 76.2025 187 141 60 255
568 560 77.3569 192 145 63 255
568 564 73.2002 178 129 58 255
568 568 71.7505 135 94 41 255
568 572 77.9449 100 66 32 255
568 576 79.0478 94 59 29 255
568 580 78.9419 95 61 29 255
568 584 74.8221 113 76 34 255
568 588 71.0881 148 103 49 255
568 592 70.8041 135 90 42 255
568 596 77.2647 100 63 30 255
568 600 79.9393 91 57 28 255
568 604 79.4428 92 56 29 255
568 608 80.1522 89 53 27 255
568 612 82.333 82 48 24 255
568 616 85.0389 75 45 24 255
568 620 78.2848 96 59 30 255
568 624 71.3824 125 79 39 255
568 628 70.6317 127 79 39 255
568 632 70.2269 130 82 39 255
568 636 69.0386 135 85 38 255
568 640 74.0853 109 65 32 255
568 644 74.4512 109 66 34 255
568 648 66.5952 145 89 38 255
568 652 68.4615 138 86 40 255
568 656 68.1439 140 87 41 255
568 660 67.6433 143 89 41 255
568 664 66.3045 153 95 43 255
568 668 67.3219 155 100 44 255
568 672 66.4539 154 97 42 255
568 676 65.374 161 100 43 255
568 680 64.6095 161 98 42 255
568 684 64.5999 164 99 46 255
568 688 63.521 170 100 48 255
568 692 64.2519 162 96 46 255
568 696 64.3403 155 90 44 255
568 700 64.3306 170 102 49 255
568 704 64.3258 170 101 51 255
568 708 64.3226 166 98 50 255
568 712 64.5102 173 103 53 255
568 716 63.9505 172 101 52 255
568 720 62.281 162 90 45 255
568 724 62.2644 157 86 42 255
568 728 61.8766 178 101 49 255
568 732 62.4053 182 104 52 255
568 736 62.696 183 104 55 255
568 740 61.1157 181 101 49 255
568 744 63.3582 165 95 48 255
568 748 83.0973 81 48 29 255
568 752 87.2218 69 40 25 255
568 756 82.4746 82 47 28 255
568 760 76.193 102 60 33 255
568 764 80.254 88 50 28 255
568 768 84.6798 76 44 27 255
568 772 84.5528 76 44 25 255
568 776 86.0389 71 38 23 255
568 780 70.1901 123 70 39 255
568 784 64.1811 189 110 59 255
568 788 64.0425 188 109 59 255
568 792 64.9952 174 102 59 255
568 796 64.459 158 90 51 255
572 196 108.826 229 191 142 255
572 200 101.51 222 180 128 255
572 204 97.091 219 173 120 255
572 208 93.8491 207 166 113 255
572 212 90.1755 191 155 106 255
572 216 87.7084 182 148 100 255
572 220 86.9846 177 144 99 255
572 224 85.2585 192 147 98 255
572 228 84.0749 179 140 94 255
572 232 87.6094 193 152 101 255
572 236 98.9407 219 178 120 255
572 240 80.8759 175 133 87 255
572 244 79.1001 188 135 87 255
572 248 78.121 187 133 85 255
572 252 76.5825 183 129 81 255
572 256 78.6587 190 136 85 255
572 260 77.6062 140 105 70 255
572 264 74.1829 162 115 69 255
572 268 73.7737 153 107 67 255
572 272 74.6493 138 99 59 255
572 276 78.9118 116 87 57 255
572 280 81.0775 105 80 54 255
572 284 79.1445 109 80 51 255
572 288 78.9091 107 77 48 255
572 292 85.1227 85 67 41 255
572 296 85.9632 81 63 39 255
572 300 85.5717 81 61 38 255
572 304 86.513 78 60 36 255
572 308 85.9476 79 59 36 255
572 312 86.0905 79 60 36 255
572 316 87.0463 75 57 32 255
572 320 81.8131 105 86 50 255
572 324 107.084 205 190 130 255
572 348 116.346 229 214 138 255
572 352 110.459 225 205 127 255
572 356 93.3867 208 176 95 255
572 360 96.8779 211 183 100 255
572 364 95.6265 200 175 103 255
572 368 107.59 219 199 123 255
572 372 112.355 232 212 125 255
572 376 100.709 223 193 104 255
572 380 112.044 237 214 121 255
572 396 110.621 242 213 117 255
572 400 95.5908 224 184 97 255
572 404 94.505 222 183 93 255
572 408 108.297 243 211 110 255
572 412 110.833 248 218 109 255
572 416 111.433 249 220 108 255
572 420 110.865 247 220 105 255
572 424 106.862 245 213 99 255
572 428 103.31 241 206 95 255
572 432 101.001 238 202 91 255
572 436 97.9849 233 196 87 255
572 440 94.683 228 190 81 255
572 444 90.1399 222 181 74 255
572 448 85.6007 215 171 68 255
572 452 83.2166 211 165 66 255
572 456 81.6438 209 161 65 255
572 460 77.6701 201 151 59 255
572 464 75.15 192 143 54 255
572 468 73.4819 188 138 51 255
572 472 71.5371 184 132 48 255
572 476 68.5309 176 121 43 255
572 480 67.6204 170 115 41 255
572 484 67.77 163 111 38 255
572 488 68.4676 163 112 41 255
572 492 68.6755 166 115 41 255
572 496 69.9675 166 118 43 255
572 500 70.4443 166 119 44 255
572 504 71.3086 168 121 49 255
572 508 72.4212 165 122 49 255
572 512 73.1211 161 121 49 255
572 516 73.3496 155 118 46 255
572 520 73.2326 150 114 44 255
572 524 72.9372 141 104 44 255
572 528 71.775 138 99 38 255
572 532 70.1739 136 93 32 255
572 536 69.7309 137 93 31 255
572 540 69.8907 147 103 37 255
572 544 71.5314 151 110 43 255
572 548 71.775 153 111 47 255
572 552 71.6367 162 117 50 255
572 556 72.6562 166 123 50 255
572 560 73.6728 170 127 54 255
572 564 71.8498 167 121 51 255
572 568 73.0476 174 127 56 255
572 572 71.4794 163 116 53 255
572 576 71.4895 127 84 36 255
572 580 76.0926 105 68 30 255
572 584 78.3758 96 61 27 255
572 588 79.7452 92 59 27 255
572 592 80.3633 90 57 28 255
572 596 79.8682 91 57 27 255
572 600 80.7966 89 58 26 255
572 604 78.6272 95 59 29 255
572 608 77.1349 98 58 28 255
572 612 77.5263 98 60 29 255
572 616 74.9187 109 69 33 255
572 620 71.7117 123 79 35 255
572 624 69.4459 129 79 35 255
572 628 70.7779 124 77 34 255
572 632 70.1032 131 83 39 255
572 636 67.6433 143 89 41 255
572 640 71.3752 121 74 35 255
572 644 71.9188 123 79 37 255
572 648 67.6357 156 102 44 255
572 652 67.1528 155 99 45 255
572 656 66.6882 158 100 46 255
572 660 66.0782 159 99 46 255
572 664 67.2144 160 104 45 255
572 668 67.9344 163 108 47 255
572 672 67.5241 165 108 48 255
572 676 65.8275 161 101 44 255
572 680 65.2142 159 98 42 255
572 684 64.515 155 92 41 255
572 688 66.2421 144 86 39 255
572 692 66.4461 143 85 40 255
572 696 66.3605 151 93 43 255
572 700 66.3652 144 86 40 255
572 704 66.2171 137 77 37 255
572 708 66.3714 135 75 36 255
572 712 65.1175 140 77 37 255
572 716 67.7029 128 70 34 255
572 720 68.2545 125 68 32 255
572 724 70.6946 116 62 32 255
572 728 70.1327 120 66 35 255
572 732 69.7353 121 66 35 255
572 736 69.2477 123 67 36 255
572 740 65.8479 138 76 39 255
572 744 68.6258 127 71 37 255
572 748 82.4283 83 49 30 255
572 752 86.9312 71 44 28 255
572 756 86.0389 72 42 24 255
572 760 80.1832 88 50 27 255
572 764 74.1258 111 67 37 255
572 768 75.9431 102 59 32 255
572 772 80.4571 88 51 29 255
572 776 85.7201 73 42 26 255
572 780 67.2144 134 75 40 255
572 784 62.7684 188 108 54 255
572 788 64.2776 183 107 58 255
572 792 64.3932 167 97 54 255
572 796 64.8871 182 107 60 255
576 208 108.614 231 195 136 255
576 212 104.276 225 188 128 255
576 216 98.0829 219 179 115 255
576 220 90.2556 206 165 99 255
576 224 93.8138 221 175 104 255
576 228 88.1982 203 161 95 255
576 232 100.051 213 181 118 255
576 236 102.165 228 190 117 255
576 240 80.3337 190 143 81 255
576 244 78.9406 200 144 80 255
576 248 78.125 199 142 79 255
576 252 77.2112 193 137 79 255
576 256 78.6298 195 140 82 255
576 260 76.1808 159 117 72 255
576 264 75.1101 155 112 69 255
576 268 74.3859 139 98 61 255
576 272 75.89 160 115 75 255
576 276 77.7817 120 89 56 255
576 280 81.8308 102 80 51 255
576 284 80.1458 103 76 47 255
576 288 80.2179 100 72 44 255
576 292 84.6065 85 65 39 255
576 296 84.6163 84 63 38 255
576 300 83.0476 89 65 40 255
576 304 84.2823 84 62 36 255
576 308 85.1603 81 60 35 255
576 312 86.2032 78 59 34 255
576 316 87.0463 75 57 32 255
576 320 82.2878 105 87 52 255
576 324 101.45 192 178 119 255
576 328 121.098 227 217 152 255
576 332 118.067 227 213 146 255
576 336 105.009 206 188 125 255
576 340 85.6899 162 139 87 255
576 344 77.4983 123 94 53 255
576 348 76.4786 117 84 47 255
576 352 74.6161 126 91 45 255
576 356 74.2052 134 99 47 255
576 360 75.5216 149 113 60 255
576 364 77.0545 155 121 64 255
576 368 79.6545 168 134 72 255
576 372 74.7931 158 121 55 255
576 376 77.021 175 134 66 255
576 380 84.3779 188 153 81 255
576 384 84.3375 186 152 81 255
576 388 86.0052 191 157 84 255
576 392 82.4057 184 149 75 255
576 396 72.3756 155 112 53 255
576 400 70.563 140 95 43 255
576 404 71.7289 154 110 51 255
576 408 73.6882 171 125 60 255
576 412 74.4276 178 131 61 255
576 416 74.9022 182 135 60 255
576 420 75.2873 183 137 59 255
576 424 75.1143 185 138 58 255
576 428 74.226 186 137 56 255
576 432 72.9004 182 133 52 255
576 436 72.4426 181 132 50 255
576 440 72.4241 180 131 51 255
576 444 71.3173 176 126 50 255
576 448 72.0508 177 129 49 255
576 452 74.6189 181 137 52 255
576 456 77.4543 189 146 58 255
576 460 79.4428 194 152 61 255
576 464 79.2853 195 152 61 255
576 468 80.2797 199 156 61 255
576 472 82.0879 206 162 63 255
576 476 84.6493 213 169 66 255
576 480 88.0517 219 177 70 255
576 484 89.8817 221 181 72 255
576 488 91.8024 222 185 74 255
576 492 93.7576 224 188 79 255
576 496 94.7605 224 190 80 255
576 500 96.993 227 195 82 255
576 504 98.476 229 198 84 255
576 508 100.471 233 202 87 255
576 512 101.675 234 205 87 255
576 516 100.709 233 203 86 255
576 520 97.3545 226 194 86 255
576 524 92.7462 212 178 90 255
576 528 88.5174 202 167 85 255
576 532 81.731 188 151 71 255
576 536 76.6378 180 139 59 255
576 540 76.3244 180 139 57 255
576 544 76.411 176 137 57 255
576 548 72.0121 168 123 49 255
576 552 70.2019 164 116 46 255
576 556 70.5439 161 115 45 255
576 560 71.0561 155 111 46 255
576 564 70.5395 148 103 45 255
576 568 68.9487 158 108 44 255
576 572 68.7597 158 107 45 255
576 576 69.0939 140 91 40 255
576 580 71.0837 125 80 34 255
576 584 74.1299 111 70 31 255
576 588 77.6794 99 63 30 255
576 592 79.5247 92 58 26 255
576 596 77.5383 98 61 27 255
576 600 76.3772 102 64 27 255
576 604 71.9777 120 75 35 255
576 608 69.1537 135 85 39 255
576 612 68.9562 137 87 39 255
576 616 69.4563 137 88 41 255
576 620 69.1776 134 85 36 255
576 624 68.7221 138 87 40 255
576 628 68.1712 143 90 43 255
576 632 66.651 151 94 43 255
576 636 66.5657 166 105 50 255
576 640 68.021 140 87 40 255
576 644 68.0742 155 102 45 255
576 648 72.267 194 134 60 255
576 652 72.2399 192 133 60 255
576 656 69.4741 191 127 56 255
576 660 69.6597 197 129 59 255
576 664 72.0609 201 136 61 255
576 668 72.3484 202 138 59 255
576 672 74.9463 211 145 65 255
576 676 69.6597 196 129 58 255
576 680 66.5082 197 123 54 255
576 684 63.745 176 105 49 255
576 688 65.0254 177 109 50 255
576 692 67.7898 199 125 59 255
576 696 68.6243 202 128 60 255
576 700 67.7639 198 124 60 255
576 704 64.1054 191 113 55 255
576 708 63.3793 191 111 55 255
576 712 63.8503 195 114 56 255
576 716 63.1638 181 105 53 255
576 720 62.3937 176 100 51 255
576 724 61.6743 166 92 45 255
576 728 62.5525 180 103 52 255
576 732 61.7864 179 101 50 255
576 736 61.399 176 98 49 255
576 740 61.619 179 100 51 255
576 744 62.5574 170 96 50 255
576 748 68.197 137 81 45 255
576 752 77.2807 99 59 33 255
576 756 81.7449 85 51 29 255
576 760 83.4892 81 50 31 255
576 764 75.9798 104 62 36 255
576 768 69.3983 125 71 37 255
576 772 72.2613 114 64 36 255
576 776 76.8894 97 53 29 255
576 780 65.0032 160 95 49 255
576 784 63.8082 190 109 60 255
576 788 63.8713 170 98 54 255
576 792 63.288 168 96 51 255
576 796 65.3582 196 115 63 255
580 240 98.247 214 179 114 255
580 244 91.9542 210 170 100 255
580 248 86.0076 204 159 89 255
580 252 80.0633 195 145 80 255
580 256 78.9876 189 140 79 255
580 260 77.7844 179 132 78 255
580 264 87.8873 183 149 100 255
580 268 79.4883 163 126 79 255
580 272 75.8819 186 128 82 255
580 276 75.2256 131 93 58 255
580 280 82.9978 97 76 51 255
580 284 82.7348 94 72 45 255
580 288 81.7512 96 71 45 255
580 292 82.9268 91 68 42 255
580 296 83.6228 88 66 40 255
580 300 81.779 92 66 38 255
580 304 80.8887 95 68 38 255
580 308 79.9974 97 67 39 255
580 312 80.757 93 64 35 255
580 316 81.8396 91 65 36 255
580 320 80.9219 93 65 35 255
580 324 79.2032 100 71 36 255
580 328 77.4343 116 86 48 255
580 332 76.9364 117 86 47 255
580 336 77.4717 107 76 37 255
580 340 79.0609 99 69 34 255
580 344 77.868 106 75 39 255
580 348 75.4354 132 98 53 255
580 352 75.7347 118 84 44 255
580 356 76.2404 112 78 40 255
580 360 73.9583 155 115 57 255
580 364 82.4095 180 146 77 255
580 368 93.6706 200 171 101 255
580 372 89.9323 195 164 93 255
580 376 84.4562 190 153 83 255
580 380 79.5403 175 139 70 255
580 384 72.6434 161 116 57 255
580 388 70.0251 150 102 48 255
580 392 71.0343 137 93 43 255
580 396 70.9834 142 97 47 255
580 400 71.5429 152 108 50 255
580 404 74.7516 168 126 60 255
580 408 77.0451 183 139 65 255
580 412 82.5072 199 156 74 255
580 416 88.0059 210 170 81 255
580 420 92.1293 219 179 88 255
580 424 95.1869 227 187 90 255
580 428 97.5516 232 193 91 255
580 432 97.7569 233 195 88 255
580 436 99.426 236 198 91 255
580 440 100.52 239 200 93 255
580 444 101.093 241 202 92 255
580 448 102.306 242 205 92 255
580 452 104.495 245 210 93 255
580 456 109.081 250 219 98 255
580 460 109.963 250 222 96 255
580 464 108.761 251 220 94 255
580 468 107.683 252 217 95 255
580 472 107.329 251 217 93 255
580 476 108.754 252 220 94 255
580 480 111.556 253 225 98 255
580 484 112.576 252 227 99 255
580 488 113.23 252 229 98 255
580 492 114.601 253 231 101 255
580 496 115.614 254 233 102 255
580 500 116.037 252 234 102 255
580 504 116.871 252 236 102 255
580 508 115.255 253 233 100 255
580 512 113.823 253 230 99 255
580 516 112.211 253 227 97 255
580 520 112.534 251 226 101 255
580 524 110.642 239 215 113 255
580 528 107.99 234 209 111 255
580 532 109.96 241 215 110 255
580 536 107.724 242 214 101 255
580 540 104.59 241 210 93 255
580 544 104.297 242 208 96 255
580 548 89.8139 220 179 76 255
580 552 87.8179 220 175 74 255
580 556 92.1977 229 185 79 255
580 560 89.0259 225 178 76 255
580 564 83.0662 215 164 70 255
580 568 82.872 217 164 70 255
580 572 74.9366 198 143 59 255
580 576 70.321 176 122 53 255
580 580 70.3562 170 118 53 255
580 584 69.3446 162 111 48 255
580 588 69.5707 155 105 49 255
580 592 69.3983 138 90 39 255
580 596 69.5841 150 101 47 255
580 600 68.4962 155 102 48 255
580 604 68.5219 155 103 46 255
580 608 68.0711 154 101 45 255
580 612 68.698 146 95 44 255
580 616 68.3422 138 86 39 255
580 620 70.0059 129 80 38 255
580 624 70.8785 124 77 35 255
580 628 69.8419 127 77 36 255
580 632 69.4072 127 76 34 255
580 636 72.2155 117 71 34 255
580 640 79.3856 90 51 26 255
580 644 72.821 114 69 32 255
580 648 67.7227 150 97 42 255
580 652 67.0605 154 99 42 255
580 656 66.1344 157 99 42 255
580 660 66.1656 163 103 46 255
580 664 67.9785 174 114 53 255
580 668 67.6784 179 117 52 255
580 672 68.6439 186 123 54 255
580 676 68.2621 181 119 54 255
580 680 66.4974 167 107 47 255
580 684 63.8341 163 97 43 255
580 688 67.2036 192 121 57 255
580 692 67.837 201 126 59 255
580 696 69.7265 206 131 63 255
580 700 67.3341 203 126 58 255
580 704 64.4012 198 117 56 255
580 708 63.6575 196 114 56 255
580 712 64.4077 200 117 58 255
580 716 63.4103 190 110 56 255
580 720 61.9651 181 102 52 255
580 724 61.2861 174 97 47 255
580 728 62.2677 192 109 54 255
580 732 61.19 192 107 52 255
580 736 61.4393 190 106 53 255
580 740 60.8769 187 103 52 255
580 744 62.6119 193 109 57 255
580 748 64.5102 182 107 58 255
580 752 67.6219 155 96 54 255
580 756 70.601 125 75 40 255
580 760 74.7295 107 63 34 255
580 764 77.791 97 58 31 255
580 768 75.9431 102 59 32 255
580 772 68.2938 134 78 43 255
580 776 63.0378 161 91 46 255
580 780 63.1753 181 104 55 255
580 784 62.9623 188 107 57 255
580 788 63.208 165 94 49 255
580 792 64.2728 178 104 57 255
580 796 65.3756 194 114 63 255
584 272 92.5578 225 170 108 255
584 276 70.6493 168 110 67 255
584 280 80.1612 106 80 50 255
584 284 78.5009 110 80 49 255
584 288 75.6323 117 79 49 255
584 292 79.0086 104 74 44 255
584 296 79.121 102 71 43 255
584 300 81.0545 94 66 39 255
584 304 81.2239 94 67 39 255
584 308 78.1832 104 72 40 255
584 312 76.6809 108 73 39 255
584 316 77.7871 104 71 38 255
584 320 78.0019 103 70 38 255
584 324 73.7359 116 75 37 255
584 328 72.6335 120 78 35 255
584 332 73.7667 119 79 40 255
584 336 72.4469 124 81 41 255
584 340 72.9386 123 81 42 255
584 344 72.0795 131 89 43 255
584 348 72.4612 145 103 52 255
584 352 73.5142 124 86 40 255
584 356 73.8353 120 81 40 255
584 360 94.2741 199 174 98 255
584 384 114.832 242 218 127 255
584 388 106.693 233 204 114 255
584 392 103.467 228 198 109 255
584 396 100.186 225 192 104 255
584 400 103.901 235 201 107 255
584 404 111.706 246 217 115 255
584 408 113.109 249 219 118 255
584 412 113.667 253 221 117 255
584 416 115.277 253 225 117 255
584 420 114.454 252 225 113 255
584 424 111.025 250 220 106 255
584 428 109.804 251 218 104 255
584 432 110.411 251 219 105 255
584 436 109.199 251 217 103 255
584 440 108.788 251 216 103 255
584 444 109.416 251 218 102 255
584 448 108.217 250 216 100 255
584 452 106.245 248 213 96 255
584 456 106.627 251 214 96 255
584 460 106.278 249 214 94 255
584 464 107.945 249 218 94 255
584 468 108.352 250 219 94 255
584 472 107.348 249 217 93 255
584 476 108.115 250 218 95 255
584 480 109.546 250 221 96 255
584 484 111.75 251 225 99 255
584 488 113.549 251 228 102 255
584 492 115.384 253 232 103 255
584 496 114.973 252 231 103 255
584 500 114.795 251 231 102 255
584 504 114.842 252 232 100 255
584 508 113.405 253 229 99 255
584 512 112.39 253 227 98 255
584 516 111.793 253 226 97 255
584 520 111.561 252 225 98 255
584 524 108.565 240 214 105 255
584 528 104 225 200 107 255
584 532 109.607 235 211 115 255
584 536 112.302 245 221 110 255
584 540 106.981 243 215 95 255
584 544 103.191 240 207 92 255
584 548 85.867 210 170 69 255
584 552 88.2263 218 176 73 255
584 556 96.5842 238 194 85 255
584 560 94.3803 238 190 82 255
584 564 89.4208 231 179 78 255
584 568 86.0569 227 172 74 255
584 572 75.1376 195 141 62 255
584 576 71.5501 175 123 57 255
584 580 71.2274 172 121 55 255
584 584 69.3699 166 113 51 255
584 588 70.3548 175 121 54 255
584 592 70.7662 177 123 55 255
584 596 69.6048 171 117 52 255
584 600 68.6168 167 112 50 255
584 604 69.1656 170 115 52 255
584 608 69.3387 165 113 49 255
584 612 69.1118 161 109 49 255
584 616 67.7883 159 104 47 255
584 620 67.6006 154 99 46 255
584 624 67.9131 148 95 43 255
584 628 67.0142 153 96 46 255
584 632 66.3792 158 99 46 255
584 636 69.4146 136 86 42 255
584 640 80.3569 87 50 23 255
584 644 75.4888 106 66 32 255
584 648 70.81 181 126 54 255
584 652 69.6553 182 123 55 255
584 656 67.2312 171 111 50 255
584 660 65.4135 168 105 46 255
584 664 66.9109 175 113 50 255
584 668 67.0636 173 112 50 255
584 672 66.8197 164 105 48 255
584 676 66.4103 142 84 39 255
584 680 68.4133 133 80 37 255
584 684 65.3961 142 81 37 255
584 688 65.4861 145 84 40 255
584 692 65.173 152 90 43 255
584 696 64.2599 160 95 44 255
584 700 63.9861 159 94 42 255
584 704 63.7969 160 93 45 255
584 708 63.1982 160 91 45 255
584 712 62.9098 166 95 47 255
584 716 62.775 167 95 48 255
584 720 63.2227 159 89 47 255
584 724 63.4152 157 88 46 255
584 728 62.564 176 100 52 255
584 732 62.045 185 104 54 255
584 736 61.4124 184 102 53 255
584 740 62.2263 185 104 55 255
584 744 62.9591 194 110 58 255
584 748 63.7612 191 110 59 255
584 752 68.1409 187 115 68 255
584 756 69.6241 181 115 69 255
584 760 65.9483 155 93 49 255
584 764 72.7074 115 69 35 255
584 768 78.2109 96 58 31 255
584 772 68.5912 130 75 39 255
584 776 62.4136 188 107 54 255
584 780 63.5551 192 110 59 255
584 784 64.817 193 113 61 255
584 788 63.1736 179 102 56 255
584 792 65.7459 199 117 64 255
584 796 64.2631 195 112 62 255
588 272 110.071 243 200 136 255
588 276 75.3765 198 133 81 255
588 280 77.5103 117 85 53 255
588 284 72.9131 134 91 53 255
588 288 67.1313 169 104 60 255
588 292 71.8484 130 84 48 255
588 296 74.4567 119 80 44 255
588 300 79.3022 101 71 41 255
588 304 80.8555 96 69 40 255
588 308 74.4248 117 78 41 255
588 312 70.2504 134 86 43 255
588 316 69.1462 134 84 38 255
588 320 69.052 136 86 39 255
588 324 65.2664 156 96 40 255
588 328 64.7452 161 98 43 255
588 332 66.3247 154 97 41 255
588 336 66.4445 157 100 42 255
588 340 66.4539 154 97 42 255
588 344 66.589 150 94 40 255
588 348 69.2418 142 94 40 255
588 352 72.8819 147 106 53 255
588 356 87.4158 181 153 90 255
588 400 116.754 251 226 122 255
588 404 115.317 250 224 119 255
588 408 113.285 250 220 117 255
588 412 111.242 249 217 113 255
588 416 112.847 250 221 113 255
588 420 113.249 250 223 111 255
588 424 109.623 248 217 105 255
588 428 108.214 248 215 102 255
588 432 108.202 249 215 102 255
588 436 106.788 248 212 101 255
588 440 107.186 249 213 101 255
588 444 107.393 250 214 100 255
588 448 106.007 249 212 97 255
588 452 104.215 248 209 94 255
588 456 105.253 250 212 93 255
588 460 107.274 251 216 95 255
588 464 108.888 251 219 97 255
588 468 109.073 251 219 98 255
588 472 108.897 250 219 97 255
588 476 109.72 251 221 97 255
588 480 111.334 251 224 99 255
588 484 113.543 252 228 102 255
588 488 114.558 252 230 103 255
588 492 113.123 253 227 102 255
588 496 112.935 254 227 101 255
588 500 111.387 251 225 97 255
588 504 111.216 250 225 96 255
588 508 112.993 252 228 99 255
588 512 112.812 252 228 98 255
588 516 111.626 251 226 96 255
588 520 112.044 251 227 96 255
588 524 111.914 245 222 106 255
588 528 104.318 226 202 105 255
588 532 108.816 234 210 113 255
588 536 113.527 245 222 114 255
588 540 112.861 250 224 107 255
588 544 100.15 235 201 88 255
588 548 81.2404 199 158 62 255
588 552 87.8226 216 175 72 255
588 556 98.4823 242 198 87 255
588 560 95.7388 240 193 83 255
588 564 92.992 237 187 81 255
588 568 88.0576 231 177 75 255
588 572 73.9597 190 137 59 255
588 576 71.579 172 122 55 255
588 580 70.6902 166 116 53 255
588 584 69.4682 157 107 48 255
588 588 70.0192 168 116 52 255
588 592 69.9188 171 117 54 255
588 596 69.6642 163 111 52 255
588 600 68.9352 161 108 50 255
588 604 69.4444 167 114 51 255
588 608 69.0146 162 110 48 255
588 612 68.3619 156 103 47 255
588 616 68.3619 156 103 47 255
588 620 68.2121 153 100 46 255
588 624 68.147 149 96 45 255
588 628 66.9896 155 98 46 255
588 632 66.2468 159 100 45 255
588 636 68.7161 149 97 47 255
588 640 73.9625 108 62 32 255
588 644 67.5195 143 89 40 255
588 648 74.4137 201 142 61 255
588 652 74.9118 203 144 61 255
588 656 70.4443 194 131 56 255
588 660 70.2578 198 131 59 255
588 664 73.2453 209 141 63 255
588 668 74.7959 209 144 65 255
588 672 68.3981 188 123 55 255
588 676 68.0271 188 122 55 255
588 680 68.6017 187 123 55 255
588 684 63.771 186 111 51 255
588 688 64.1151 169 100 50 255
588 692 66.2468 182 114 54 255
588 696 67.1959 194 122 57 255
588 700 65.7663 185 115 53 255
588 704 63.2553 174 102 49 255
588 708 62.2777 171 96 50 255
588 712 62.2893 166 93 47 255
588 716 62.198 159 88 42 255
588 720 63.3598 150 82 41 255
588 724 64.1875 145 79 40 255
588 728 63.8082 154 87 44 255
588 732 63.3582 152 84 42 255
588 736 64.3178 145 79 41 255
588 740 64.9619 145 81 42 255
588 744 64.0329 150 84 42 255
588 748 65.7349 147 85 45 255
588 752 65.7522 145 83 44 255
588 756 65.3203 160 95 51 255
588 760 63.847 170 99 52 255
588 764 65.0635 147 83 44 255
588 768 70.9222 119 68 35 255
588 772 66.0234 147 85 47 255
588 776 62.9344 195 111 57 255
588 780 64.0329 198 114 60 255
588 784 64.809 197 114 63 255
588 788 63.172 184 105 57 255
588 792 67.3219 211 124 68 255
588 796 65.8965 205 119 66 255
592 272 112.908 227 199 146 255
592 276 80.8606 190 139 90 255
592 280 74.4026 131 91 56 255
592 284 71.0096 143 94 55 255
592 288 67.2574 166 103 58 255
592 292 73.4116 127 86 48 255
592 296 75.434 117 81 44 255
592 300 78.6954 105 75 43 255
592 304 79.6765 101 73 41 255
592 308 74.9132 116 79 40 255
592 312 73.458 121 81 40 255
592 316 74.6977 116 79 38 255
592 320 74.4206 117 79 39 255
592 324 71.8498 132 89 44 255
592 328 89.4127 197 161 97 255
592 332 107.434 227 198 126 255
592 336 102.68 227 193 114 255
592 340 82.6698 205 157 77 255
592 344 85.737 204 161 84 255
592 348 104.044 218 192 119 255
592 352 118.361 235 218 141 255
592 400 115.317 250 224 119 255
592 404 114.088 250 222 117 255
592 408 112.24 251 219 114 255
592 412 110.815 250 217 111 255
592 416 110.426 248 217 109 255
592 420 111.038 248 219 108 255
592 424 110.032 248 218 105 255
592 428 108.625 248 216 102 255
592 432 107.186 249 213 101 255
592 436 105.989 248 211 99 255
592 440 105.976 249 211 99 255
592 444 103.402 247 207 94 255
592 448 102.801 247 206 93 255
592 452 104.783 251 210 95 255
592 456 107.085 252 216 94 255
592 460 109.488 251 220 98 255
592 464 110.646 252 221 102 255
592 468 109.828 251 219 102 255
592 472 110.689 251 222 100 255
592 476 112.942 252 227 101 255
592 480 113.128 252 227 102 255
592 484 114.558 252 230 103 255
592 488 115.573 252 232 104 255
592 492 113.538 253 228 102 255
592 496 112.343 252 226 100 255
592 500 111.978 252 226 98 255
592 504 111.798 252 226 97 255
592 508 112.395 252 227 98 255
592 512 113.827 252 230 99 255
592 516 112.216 252 227 97 255
592 520 114.134 252 232 96 255
592 524 114.168 249 229 103 255
592 528 105.565 229 205 106 255
592 532 108.203 234 209 112 255
592 536 115.197 245 223 120 255
592 540 114.073 249 224 113 255
592 544 97.8498 232 196 86 255
592 548 80.7608 199 156 64 255
592 552 84.3093 210 167 67 255
592 556 98.9261 241 199 87 255
592 560 95.0739 237 192 81 255
592 564 91.934 234 185 79 255
592 568 86.9514 226 174 74 255
592 572 72.347 183 130 57 255
592 576 70.4267 164 115 50 255
592 580 70.1474 159 110 50 255
592 584 69.8789 151 103 47 255
592 588 69.904 164 113 51 255
592 592 69.8671 168 116 51 255
592 596 69.7353 161 110 51 255
592 600 69.2179 160 108 50 255
592 604 68.9547 167 113 50 255
592 608 69.0146 162 110 48 255
592 612 68.8348 157 105 48 255
592 616 68.674 156 104 47 255
592 620 68.0833 152 99 45 255
592 624 68.2363 151 98 46 255
592 628 66.682 157 99 46 255
592 632 67.1528 156 100 45 255
592 636 67.3311 149 95 41 255
592 640 69.7975 124 73 33 255
592 644 67.6662 158 104 44 255
592 648 74.4234 197 140 62 255
592 652 75.905 204 146 63 255
592 656 71.5833 197 134 59 255
592 660 70.2578 198 131 59 255
592 664 71.6006 199 134 61 255
592 668 67.4138 169 110 50 255
592 672 67.2328 169 109 51 255
592 676 68.2197 186 120 58 255
592 680 66.5781 177 113 51 255
592 684 63.7013 181 108 50 255
592 688 62.7865 159 90 42 255
592 692 66.4383 195 120 58 255
592 696 69.0565 211 132 61 255
592 700 69.0715 208 131 61 255
592 704 65.9467 201 122 57 255
592 708 65.5508 201 120 59 255
592 712 64.5822 198 117 57 255
592 716 62.2794 192 110 52 255
592 720 62.691 186 106 55 255
592 724 62.4483 184 105 53 255
592 728 65.1588 200 118 60 255
592 732 62.5525 196 111 56 255
592 736 62.045 185 104 54 255
592 740 61.7563 184 103 53 255
592 744 62.3738 189 107 55 255
592 748 65.2491 164 97 54 255
592 752 76.6459 99 56 31 255
592 756 79.3126 92 54 31 255
592 760 65.8871 142 81 41 255
592 764 65.3503 149 85 47 255
592 768 67.0682 136 77 41 255
592 772 63.2423 166 94 51 255
592 776 62.8013 193 109 58 255
592 780 63.0066 192 109 58 255
592 784 63.2847 189 108 58 255
592 788 63.8082 190 109 60 255
592 792 67.2574 218 125 70 255
592 796 66.2546 209 121 67 255
596 272 83.3567 152 125 86 255
596 276 77.1362 125 93 57 255
596 280 74.5704 132 93 56 255
596 284 70.5161 162 107 63 255
596 288 73.0872 185 125 73 255
596 292 72.9698 144 101 57 255
596 296 78.389 109 80 45 255
596 300 81.0698 99 75 43 255
596 304 79.5701 103 76 42 255
596 308 77.4463 110 79 42 255
596 312 78.9615 104 76 40 255
596 316 83.1085 90 69 38 255
596 320 79.7996 99 71 38 255
596 324 75.5913 111 74 38 255
596 328 93.7576 184 164 103 255
596 336 111.201 224 208 125 255
596 340 113.452 230 214 126 255
596 396 115.923 251 225 120 255
596 400 113.072 250 220 116 255
596 404 113.474 250 221 116 255
596 408 112.039 250 219 113 255
596 412 109.998 250 216 109 255
596 416 108.395 248 213 107 255
596 420 108.82 247 215 105 255
596 424 107.818 247 214 102 255
596 428 107.416 248 214 100 255
596 432 106.004 247 211 99 255
596 436 104.988 247 209 98 255
596 440 103.59 247 207 95 255
596 444 101.243 244 203 91 255
596 448 102.651 245 206 92 255
596 452 106.409 250 213 97 255
596 456 110.268 252 221 100 255
596 460 112.075 252 224 103 255
596 464 112.265 252 224 104 255
596 468 111.264 250 222 103 255
596 472 110.885 250 222 101 255
596 476 112.295 253 225 102 255
596 480 113.128 252 227 102 255
596 484 114.15 251 229 103 255
596 488 113.549 251 228 102 255
596 492 110.145 250 222 97 255
596 496 109.794 249 222 95 255
596 500 110.783 252 224 96 255
596 504 110.783 252 224 96 255
596 508 111.798 252 226 97 255
596 512 112.395 252 227 98 255
596 516 111.978 252 226 98 255
596 520 114.728 252 233 97 255
596 524 116.174 252 233 105 255
596 528 109.291 237 212 112 255
596 532 108.963 235 211 112 255
596 536 114.438 243 221 120 255
596 540 113.351 244 221 115 255
596 544 99.9886 237 199 92 255
596 548 83.3121 206 163 68 255
596 552 85.655 212 170 69 255
596 556 98.7756 240 199 86 255
596 560 94.6972 236 191 81 255
596 564 89.8955 231 181 76 255
596 568 83.4199 220 166 70 255
596 572 71.1258 177 124 55 255
596 576 70.6098 158 111 49 255
596 580 70.4927 154 107 49 255
596 584 70.0737 148 101 46 255
596 588 69.8656 160 110 50 255
596 592 69.966 162 112 50 255
596 596 69.7353 161 110 51 255
596 600 69.5855 161 110 50 255
596 604 69.9365 167 115 52 255
596 608 69.3699 166 113 51 255
596 612 68.4631 161 107 49 255
596 616 68.3619 156 103 47 255
596 620 67.8522 150 97 43 255
596 624 67.6906 150 96 44 255
596 628 67.159 154 98 45 255
596 632 67.159 154 98 45 255
596 636 67.4966 160 104 47 255
596 640 67.0481 165 107 47 255
596 644 69.4786 179 122 52 255
596 648 74.1578 199 141 60 255
596 652 74.397 200 142 60 255
596 656 72.0437 200 136 60 255
596 660 68.4389 186 122 55 255
596 664 68.062 175 114 55 255
596 668 66.9556 150 92 47 255
596 672 67.9177 130 74 35 255
596 676 68.2515 130 75 36 255
596 680 70.2504 120 69 30 255
596 684 70.1548 125 75 36 255
596 688 68.7687 125 70 33 255
596 692 64.9507 187 113 55 255
596 696 69.4637 208 132 61 255
596 700 70.0856 209 133 63 255
596 704 66.9062 202 124 59 255
596 708 65.3361 199 119 58 255
596 712 64.5951 194 115 57 255
596 716 62.4897 191 110 52 255
596 720 61.9317 187 106 52 255
596 724 63.4429 189 110 55 255
596 728 66.0719 206 122 62 255
596 732 63.1196 202 115 57 255
596 736 61.619 190 106 54 255
596 740 62.1797 197 110 57 255
596 744 63.1508 184 106 55 255
596 748 73.7373 109 62 34 255
596 752 82.8683 80 44 26 255
596 756 81.3497 85 49 27 255
596 760 78.5154 93 53 28 255
596 764 76.6459 99 56 31 255
596 768 75.6419 101 56 29 255
596 772 63.6006 167 95 53 255
596 776 63.0066 192 109 58 255
596 780 63.1508 188 107 58 255
596 784 62.4086 180 101 55 255
596 788 63.3451 194 110 60 255
596 792 66.3527 211 122 67 255
596 796 65.639 203 118 65 255
600 264 108.45 201 180 147 255
600 268 80.5162 151 119 80 255
600 272 79.5312 120 95 58 255
600 276 82.4546 106 87 56 255
600 280 82.8296 101 83 51 255
600 284 78.9301 115 88 53 255
600 288 76.3325 135 101 60 255
600 292 77.0451 123 91 55 255
600 296 79.9147 104 78 45 255
600 300 80.757 100 76 42 255
600 304 79.4688 101 73 39 255
600 308 77.9728 104 73 36 255
600 312 75.6569 117 82 44 255
600 316 75.7456 113 78 39 255
600 320 77.3703 106 74 36 255
600 324 74.7586 120 85 40 255
600 328 93.0087 193 168 99 255
600 332 106.264 217 197 120 255
600 392 116.362 250 225 122 255
600 396 112.469 249 219 115 255
600 400 110.426 250 215 113 255
600 404 110.619 250 216 112 255
600 408 109.799 250 215 110 255
600 412 107.582 248 212 105 255
600 416 106.581 247 210 104 255
600 420 106.805 246 211 103 255
600 424 106.197 247 211 100 255
600 428 104.606 247 209 96 255
600 432 103.576 248 207 95 255
600 436 102.575 247 205 94 255
600 440 101.822 245 204 92 255
600 444 101.681 243 204 91 255
600 448 104.847 246 210 95 255
600 452 108.63 250 217 100 255
600 456 110.058 250 220 101 255
600 460 112.503 250 225 103 255
600 464 114.907 251 229 107 255
600 468 114.716 251 229 106 255
600 472 113.33 250 227 103 255
600 476 112.72 251 226 102 255
600 480 111.75 251 225 99 255
600 484 111.768 249 225 99 255
600 488 110.155 249 222 97 255
600 492 106.779 247 216 92 255
600 496 106.601 247 216 91 255
600 500 107.601 248 218 92 255
600 504 108.173 250 219 93 255
600 508 108.602 249 220 93 255
600 512 108.034 247 219 92 255
600 516 109.389 248 221 95 255
600 520 112.463 251 228 96 255
600 524 114.131 249 228 105 255
600 528 110.299 238 213 115 255
600 532 107.99 234 209 111 255
600 536 111.681 239 216 116 255
600 540 109.692 237 213 112 255
600 544 98.2344 235 195 91 255
600 548 87.255 217 173 74 255
600 552 86.6622 216 173 70 255
600 556 96.1511 234 193 84 255
600 560 93.8645 236 189 81 255
600 564 90.6417 235 182 79 255
600 568 84.9331 223 169 73 255
600 572 70.6376 176 122 55 255
600 576 70.7545 158 111 50 255
600 580 70.478 153 106 49 255
600 584 70.5264 147 101 47 255
600 588 69.9306 157 108 49 255
600 592 69.6123 157 107 49 255
600 596 69.5885 156 106 49 255
600 600 69.6776 159 109 49 255
600 604 69.904 164 113 51 255
600 608 69.2388 164 111 51 255
600 612 68.2802 160 106 48 255
600 616 68.674 156 104 47 255
600 620 67.7227 150 97 42 255
600 624 67.6662 151 97 44 255
600 628 67.1528 155 99 45 255
600 632 66.9896 157 100 46 255
600 636 67.3264 164 107 47 255
600 640 68.6258 178 119 52 255
600 644 72.4512 192 134 59 255
600 648 74.7185 199 142 61 255
600 652 73.3045 197 138 60 255
600 656 70.5395 178 123 55 255
600 660 67.1898 170 111 48 255
600 664 71.7635 198 134 61 255
600 668 73.1197 200 136 66 255
600 672 69.1955 184 122 57 255
600 676 67.4812 177 116 50 255
600 680 66.7749 169 109 48 255
600 684 65.609 159 97 47 255
600 688 64.7005 161 96 47 255
600 692 63.3908 191 112 53 255
600 696 66.846 198 123 57 255
600 700 69.4637 208 132 61 255
600 704 67.77 205 127 60 255
600 708 66.4943 201 122 60 255
600 712 64.9634 194 116 57 255
600 716 63.412 190 111 54 255
600 720 63.1687 187 108 55 255
600 724 61.9017 182 104 49 255
600 728 65.0032 202 119 59 255
600 732 63.8568 201 116 58 255
600 736 61.7078 188 105 54 255
600 740 61.5469 192 107 54 255
600 744 63.2243 178 103 53 255
600 748 74.8497 109 66 38 255
600 752 77.7233 98 58 35 255
600 756 78.1422 96 57 32 255
600 760 79.8785 91 55 31 255
600 764 80.588 89 54 31 255
600 768 79.7957 90 53 28 255
600 772 64.4285 158 91 49 255
600 776 62.1565 190 107 55 255
600 780 63.7483 192 110 60 255
600 784 61.5804 176 97 52 255
600 788 62.7174 190 107 58 255
600 792 66.3232 206 120 67 255
600 796 66.0109 203 119 65 255
604 260 103.327 208 179 132 255
604 264 75.5011 157 115 69 255
604 268 75.5175 148 108 67 255
604 272 78.1118 126 97 59 255
604 276 81.2264 111 91 54 255
604 280 82.4847 103 85 51 255
604 284 82.2514 101 82 48 255
604 288 80.9167 103 81 45 255
604 292 78.0998 110 81 44 255
604 296 75.9581 115 81 42 255
604 300 74.4983 118 82 37 255
604 304 73.7233 118 79 36 255
604 308 74.8221 113 76 34 255
604 312 74.9022 111 73 33 255
604 316 73.0533 120 78 39 255
604 320 76.0301 112 77 40 255
604 324 76.7428 115 84 43 255
604 328 87.3579 181 154 88 255
604 392 115.941 249 225 120 255
604 396 112.469 249 219 115 255
604 400 109.411 250 213 112 255
604 404 107.777 249 211 108 255
604 408 106.147 249 209 104 255
604 412 105.772 247 209 102 255
604 416 105.758 248 209 102 255
604 420 104.773 246 207 101 255
604 424 103.562 247 206 97 255
604 428 102.387 247 205 93 255
604 432 102.973 248 206 94 255
604 436 103.374 249 207 94 255
604 440 103.989 248 208 95 255
604 444 105.621 247 211 97 255
604 448 108.24 248 216 100 255
604 452 111.853 252 223 104 255
604 456 113.097 251 226 104 255
604 460 113.105 250 226 104 255
604 464 113.708 250 227 105 255
604 468 114.534 250 229 105 255
604 472 114.15 251 229 103 255
604 476 112.942 252 227 101 255
604 480 109.955 251 222 96 255
604 484 109.974 249 222 96 255
604 488 107.778 248 218 93 255
604 492 104.965 245 212 91 255
604 496 105.363 246 213 91 255
604 500 107.934 250 218 94 255
604 504 106.346 248 215 92 255
604 508 105.623 245 214 90 255
604 512 106.795 246 216 92 255
604 516 107.792 247 218 93 255
604 520 110.187 252 223 95 255
604 524 111.262 248 221 105 255
604 528 108.197 235 208 114 255
604 532 106.497 231 206 109 255
604 536 109.789 235 212 114 255
604 540 107.739 235 209 110 255
604 544 94.0041 231 187 85 255
604 548 88.0106 222 175 76 255
604 552 85.5971 216 170 71 255
604 556 91.0317 225 182 78 255
604 560 94.1842 237 189 83 255
604 564 91.5263 238 184 80 255
604 568 85.1906 222 169 74 255
604 572 71.501 173 122 56 255
604 576 70.7779 162 114 51 255
604 580 70.4927 154 107 49 255
604 584 70.772 150 104 49 255
604 588 70.2578 158 109 51 255
604 592 69.4265 155 105 48 255
604 596 69.7161 153 104 48 255
604 600 69.642 158 108 49 255
604 604 69.3074 162 110 50 255
604 608 68.6123 161 107 50 255
604 612 68.2257 158 104 48 255
604 616 68.674 156 104 47 255
604 620 68.2621 151 99 44 255
604 624 67.6662 151 97 44 255
604 628 66.5595 159 101 45 255
604 632 66.9186 162 104 47 255
604 636 67.8309 170 112 50 255
604 640 70.1268 184 125 56 255
604 644 73.9178 197 140 59 255
604 648 74.6535 198 141 62 255
604 652 68.6619 172 115 52 255
604 656 68.6619 172 115 52 255
604 660 71.4736 190 130 60 255
604 664 71.2144 199 133 61 255
604 668 71.7563 203 136 61 255
604 672 73.2002 208 141 62 255
604 676 73.1592 208 140 64 255
604 680 72.632 209 139 64 255
604 684 71.3013 209 137 61 255
604 688 70.5322 206 134 61 255
604 692 65.5381 197 120 55 255
604 696 67.2036 198 123 59 255
604 700 70.0295 211 134 62 255
604 704 68.1909 206 128 61 255
604 708 65.3361 199 119 58 255
604 712 65.1397 198 118 58 255
604 716 62.8671 186 108 52 255
604 720 61.9951 175 99 49 255
604 724 62.3407 183 105 51 255
604 728 64.6095 201 118 58 255
604 732 63.8568 201 116 58 255
604 736 61.8382 189 106 54 255
604 740 61.7078 188 105 54 255
604 744 64.6046 164 96 52 255
604 748 78.5628 95 57 32 255
604 752 78.3165 96 57 34 255
604 756 77.0491 101 61 36 255
604 760 78.5628 95 57 32 255
604 764 80.2437 90 54 32 255
604 768 80.7992 88 53 30 255
604 772 65.483 152 88 49 255
604 776 62.7602 195 110 58 255
604 780 63.5454 193 110 60 255
604 784 62.2495 178 99 55 255
604 788 63.5356 188 107 60 255
604 792 64.6334 200 115 63 255
604 796 65.8495 204 119 65 255
608 260 112.65 225 198 146 255
608 264 74.6299 170 124 66 255
608 268 75.6965 147 110 63 255
608 272 74.9228 143 105 60 255
608 276 75.4011 135 101 54 255
608 280 75.5038 129 96 50 255
608 284 76.0573 122 90 47 255
608 288 75.4518 123 89 47 255
608 292 73.1691 129 90 44 255
608 296 71.4663 131 88 40 255
608 300 68.1561 138 87 35 255
608 304 68.9667 135 86 35 255
608 308 71.9188 138 97 44 255
608 312 78.2624 161 125 72 255
608 316 73.8507 151 110 59 255
608 320 76.5042 149 114 64 255
608 324 83.0526 165 138 79 255
608 328 105.371 212 193 121 255
608 384 115.385 250 222 123 255
608 388 114.939 251 222 121 255
608 392 114.925 249 223 119 255
608 396 111.867 248 218 114 255
608 400 107.594 248 210 109 255
608 404 107.155 250 210 107 255
608 408 107.163 249 211 105 255
608 412 106.366 248 210 103 255
608 416 104.558 247 207 100 255
608 420 103.346 247 205 98 255
608 424 102.371 246 204 95 255
608 428 101.222 245 203 91 255
608 432 102.615 247 206 92 255
608 436 104.816 248 210 95 255
608 440 107.201 250 214 99 255
608 444 108.419 249 216 101 255
608 448 110.671 249 221 102 255
608 452 114.121 250 228 105 255
608 456 117.359 250 234 109 255
608 460 115.122 252 230 106 255
608 464 113.315 252 227 103 255
608 468 114.564 251 230 103 255
608 472 113.958 252 229 102 255
608 476 111.159 250 224 98 255
608 480 108.94 251 220 95 255
608 484 108.343 251 219 94 255
608 488 107.329 251 217 93 255
608 492 105.154 248 213 90 255
608 496 105.75 248 214 91 255
608 500 106.93 249 216 93 255
608 504 106.346 248 215 92 255
608 508 106.346 248 215 92 255
608 512 106.361 247 215 92 255
608 516 107.197 247 217 92 255
608 520 108.352 250 219 94 255
608 524 110.867 246 219 107 255
608 528 108.417 234 209 113 255
608 532 104.839 228 202 108 255
608 536 106.497 231 206 109 255
608 540 106.062 236 207 106 255
608 544 89.9369 223 179 78 255
608 548 83.2439 208 163 69 255
608 552 85.3602 216 169 72 255
608 556 84.7688 212 167 71 255
608 560 91.152 233 183 79 255
608 564 89.9162 234 181 77 255
608 568 84.7675 220 168 73 255
608 572 71.1824 173 122 54 255
608 576 70.7194 161 113 51 255
608 580 70.7997 151 106 47 255
608 584 71.3824 150 106 49 255
608 588 70.5439 157 109 51 255
608 592 69.8685 154 105 49 255
608 596 69.4339 152 103 46 255
608 600 69.5989 155 106 47 255
608 604 69.541 160 109 50 255
608 608 68.9352 161 108 50 255
608 612 68.0802 159 104 49 255
608 616 68.5159 153 101 46 255
608 620 67.8309 151 98 43 255
608 624 67.5027 153 99 43 255
608 628 66.5983 162 103 47 255
608 632 66.8923 166 106 50 255
608 636 67.6051 173 114 49 255
608 640 70.4956 184 126 56 255
608 644 71.8153 182 128 57 255
608 648 69.7413 175 121 50 255
608 652 68.7822 175 117 53 255
608 656 71.4808 192 131 60 255
608 660 72.4426 195 134 62 255
608 664 71.8052 198 135 59 255
608 668 73.1832 204 140 61 255
608 672 75.1692 211 146 64 255
608 676 75.512 213 147 65 255
608 680 72.5922 211 140 63 255
608 684 71.9791 211 138 64 255
608 688 72.4683 212 140 63 255
608 692 69.2671 204 130 61 255
608 696 67.8248 200 126 58 255
608 700 69.6776 208 133 60 255
608 704 69.6464 208 132 62 255
608 708 67.3387 204 125 61 255
608 712 64.4317 194 116 54 255
608 716 63.9861 189 112 54 255
608 720 62.4665 177 101 51 255
608 724 63.3924 186 108 55 255
608 728 65.0032 202 119 59 255
608 732 63.288 200 115 56 255
608 736 62.691 190 109 54 255
608 740 64.6334 192 113 59 255
608 744 64.3371 170 100 53 255
608 748 72.9244 114 67 37 255
608 752 77.1135 100 60 34 255
608 756 76.3934 105 65 39 255
608 760 76.5406 102 61 35 255
608 764 79.5987 91 53 31 255
608 768 81.7285 84 48 28 255
608 772 67.2697 140 81 46 255
608 776 63.1982 192 109 59 255
608 780 63.0591 186 106 57 255
608 784 62.0217 175 97 53 255
608 788 63.1246 189 107 59 255
608 792 63.3141 196 111 60 255
608 796 65.0016 200 116 63 255
612 264 90.7943 204 167 97 255
612 268 73.4411 165 121 58 255
612 272 72.7628 150 110 50 255
612 276 70.7706 159 111 52 255
612 280 68.6123 161 107 50 255
612 284 69.5751 151 102 47 255
612 288 70.541 143 98 44 255
612 292 66.9788 151 96 41 255
612 296 69.7842 167 115 51 255
612 300 85.5584 188 154 85 255
612 304 94.3464 200 171 104 255
612 308 93.4464 197 170 100 255
612 316 111.765 223 203 135 255
612 320 89.445 190 159 96 255
612 324 96.4204 199 175 106 255
612 380 115.817 247 223 123 255
612 384 112.952 247 218 119 255
612 388 112.894 249 219 117 255
612 392 113.274 249 221 115 255
612 396 111.254 248 217 113 255
612 400 107.385 248 210 108 255
612 404 107.166 249 210 107 255
612 408 108.168 250 213 106 255
612 412 106.961 249 211 104 255
612 416 104.166 247 207 98 255
612 420 103.562 247 206 97 255
612 424 103.178 247 206 95 255
612 428 102.217 246 205 92 255
612 432 103.629 247 208 93 255
612 436 106.42 249 213 97 255
612 440 108.409 250 216 101 255
612 444 109.61 251 218 103 255
612 448 112.089 250 224 103 255
612 452 115.535 252 231 106 255
612 456 117.154 252 234 108 255
612 460 114.751 251 230 104 255
612 464 112.765 251 227 100 255
612 468 111.568 251 225 98 255
612 472 109.955 251 222 96 255
612 476 108.523 251 219 95 255
612 480 107.337 250 217 93 255
612 484 105.737 249 214 91 255
612 488 105.142 249 213 90 255
612 492 106.145 250 215 91 255
612 496 106.168 248 215 91 255
612 500 106.361 247 215 92 255
612 504 107.54 248 217 94 255
612 508 108.125 249 218 95 255
612 512 107.945 249 218 94 255
612 516 108.362 249 219 94 255
612 520 108.375 248 219 94 255
612 524 108.565 240 214 105 255
612 528 107.063 232 207 110 255
612 532 103.941 226 200 107 255
612 536 104.973 229 203 107 255
612 540 103.547 233 203 101 255
612 544 89.2682 221 177 78 255
612 548 79.4844 198 152 65 255
612 552 81.9796 207 160 68 255
612 556 78.2624 195 149 62 255
612 560 85.1688 223 170 72 255
612 564 87.8779 230 176 76 255
612 568 80.129 209 156 68 255
612 572 70.2107 168 117 51 255
612 576 70.541 161 112 52 255
612 580 70.661 150 105 46 255
612 584 71.5501 148 105 48 255
612 588 70.1798 154 106 49 255
612 592 69.2671 153 103 47 255
612 596 69.1686 151 102 44 255
612 600 69.4459 154 105 46 255
612 604 69.0356 158 107 47 255
612 608 68.1803 162 107 49 255
612 612 67.8203 161 105 49 255
612 616 67.904 155 101 46 255
612 620 67.6296 155 101 44 255
612 624 67.3525 161 104 48 255
612 628 67.2789 167 108 50 255
612 632 67.68 170 112 49 255
612 636 68.558 169 112 53 255
612 640 72.3413 124 82 38 255
612 644 70.4839 131 85 38 255
612 648 74.6922 200 141 64 255
612 652 73.0872 197 137 61 255
612 656 70.9644 190 130 57 255
612 660 73.2524 196 137 61 255
612 664 72.8252 200 138 60 255
612 668 74.0058 205 142 62 255
612 672 75.0688 210 145 65 255
612 676 75.691 213 147 66 255
612 680 72.3213 210 139 63 255
612 684 71.4794 209 137 62 255
612 688 74.1522 216 144 66 255
612 692 70.2504 208 134 61 255
612 696 68.059 202 127 59 255
612 700 69.5053 205 131 61 255
612 704 70.0384 208 133 62 255
612 708 67.7425 204 127 59 255
612 712 63.9182 192 114 53 255
612 716 64.2615 192 113 57 255
612 720 63.4413 185 108 54 255
612 724 62.6234 184 106 52 255
612 728 64.2117 199 116 58 255
612 732 64.4397 202 117 60 255
612 736 62.9673 193 111 55 255
612 740 65.5508 201 120 59 255
612 744 68.3845 210 128 65 255
612 748 65.8668 164 99 54 255
612 752 77.9595 95 54 30 255
612 756 79.753 89 50 27 255
612 760 78.1726 95 56 29 255
612 764 77.6914 97 55 35 255
612 768 78.6324 94 54 33 255
612 772 66.5983 136 75 41 255
612 776 62.2047 189 106 56 255
612 780 62.4781 179 101 54 255
612 784 62.3457 175 98 53 255
612 788 62.9016 186 105 58 255
612 792 63.0312 193 108 61 255
612 796 63.5454 193 110 60 255
616 268 109.016 221 198 131 255
616 272 84.5186 192 154 83 255
616 276 74.5316 181 133 61 255
616 280 70.7545 182 126 55 255
616 284 66.6355 176 115 45 255
616 288 67.4414 176 118 43 255
616 292 82.2162 201 154 78 255
616 296 117.534 237 216 141 255
